# .PCD v0.7 - Point Cloud Data file format
VERSION 0.7
FIELDS x y z
SIZE 4 4 4
TYPE F F F
COUNT 1 1 1
WIDTH 1263
HEIGHT 1
VIEWPOINT 0 0 0 1 0 0 0
POINTS 1263
DATA ascii
-0.039917029 0.087638542 0.0046168198
-0.038194831 0.087879911 0.0042240238
-0.037861444 0.087834194 0.0041080588
0.037791591 0.087795272 0.004071089
0.03951396 0.087180294 0.0043025543
0.040853366 0.087530941 0.0048405929
0.041039813 0.087014318 0.00467125
-0.039031446 0.088746846 0.0048399568
-0.037641786 0.088467576 0.0043182503
-0.035627455 0.088618264 0.004004098
0.034810081 0.088821538 0.0040248437
0.037687816 0.088632926 0.0044029583
0.038900904 0.088691577 0.0047784173
0.039225757 0.088554107 0.004812791
-0.037740905 0.089792512 0.0049191662
-0.036090299 0.089834146 0.0046705161
-0.035905849 0.089638993 0.0045523881
-0.034810822 0.089485407 0.004363141
-0.033112962 0.089295439 0.0040942626
0.033685759 0.089748591 0.0043832501
0.034826845 0.089411698 0.0043272409
0.035276476 0.089309782 0.0043208785
0.037149105 0.08956942 0.0046519963
-0.036995731 0.090115495 0.0049056346
-0.03223785 0.090544961 0.0046422081
-0.030148562 0.090288997 0.004300023
-0.028662119 0.090459242 0.004236104
-0.027945112 0.090213567 0.0040382571
0.02399289 0.090979606 0.0040281438
0.025796231 0.090857327 0.0041486025
0.027392676 0.090250015 0.0040009604
0.028530786 0.090511769 0.0042496668
0.029060222 0.090493709 0.0042941254
0.030299867 0.090775542 0.0045633488
0.03104132 0.09054441 0.0045207278
0.03261805 0.090258658 0.00453493
0.035451509 0.09010382 0.004743197
0.036553852 0.09021993 0.0049140728
-0.028989682 0.091415018 0.0047562825
-0.027280012 0.091495574 0.0046240413
-0.026270704 0.091048658 0.0042940318
-0.024932787 0.091554523 0.0044161659
-0.023227526 0.091244534 0.0040853806
-0.021391276 0.091535471 0.0040474995
0.02178395 0.0914037 0.0040203631
0.022500314 0.091814049 0.0043020402
0.024154268 0.091001153 0.0040554754
0.025094951 0.091719061 0.0045165964
0.026157031 0.091379851 0.0044513987
0.027491873 0.091371059 0.0045821997
0.028878462 0.091138966 0.0046044691
0.030158592 0.091333181 0.0048331604
0.031246021 0.091064051 0.0048062382
-0.023831863 0.092235714 0.0046516517
-0.022368383 0.09235815 0.0045656967
-0.02187562 0.092261069 0.0044662897
-0.019556768 0.092127442 0.0041631712
-0.01880784 0.092539094 0.0042970018
-0.017529167 0.092261337 0.0040258905
-0.016774543 0.092960566 0.0043056556
-0.01495914 0.092899427 0.0040905369
0.014970072 0.092920318 0.0041024936
0.016688289 0.092744686 0.0041871523
0.017633848 0.092400104 0.0041074338
0.018287243 0.092197321 0.0040703434
0.019473489 0.0925707 0.0043807887
0.020740677 0.092703022 0.0045766262
0.021670381 0.092155218 0.0043917638
0.022787185 0.092645124 0.0047545386
0.023306979 0.09246771 0.0047168322
0.024505779 0.092726216 0.0049700299
0.026107538 0.092440292 0.0049866964
-0.022652913 0.09311083 0.0049780356
-0.021077998 0.093063273 0.0047941776
-0.018122673 0.093834668 0.0048876652
-0.017093141 0.093663163 0.0046959287
-0.016660526 0.093568765 0.0046039848
-0.015586833 0.093666226 0.0045448127
-0.014559902 0.093890473 0.004554986
-0.013112998 0.093269974 0.0040922398
-0.012222329 0.093459092 0.0040983325
-0.011317277 0.093839347 0.0042003449
0.0089256903 0.093938321 0.0040085423
0.010556773 0.093674377 0.0040393746
0.011399547 0.093874618 0.0042268047
0.013026942 0.093683079 0.0042941584
0.014149129 0.093771487 0.0044529312
0.015056278 0.09373723 0.0045274133
0.016787313 0.093473673 0.0045685777
0.018531043 0.09318693 0.0045992183
0.019677844 0.09370634 0.0049800621
0.020576384 0.093206957 0.0048167109
-0.017232768 0.094023868 0.0048938645
-0.015233954 0.094322965 0.004843663
-0.014107253 0.094655365 0.0048988229
-0.013158854 0.094080769 0.0045099556
-0.012839663 0.094382808 0.00463149
-0.011698158 0.094774403 0.0047153146
-0.0093238791 0.094440624 0.0043046754
0.0046559623 0.094793417 0.0040114475
0.0089750662 0.094192483 0.0041430267
0.0093864258 0.094705522 0.0044460944
0.010560614 0.094352737 0.0043853656
0.013845508 0.094344839 0.0047142575
0.016289702 0.094201982 0.0048891949
-0.011614974 0.095328614 0.0049892389
-0.010203813 0.095080487 0.0047198259
-0.0084801437 0.095384985 0.0047002905
-0.0078185713 0.095779985 0.0048344838
-0.006564036 0.095796093 0.0047155698
-0.0058713718 0.095852643 0.0046741883
-0.0045755962 0.095883802 0.0045587532
-0.0027922636 0.095560096 0.0042131278
0.0026130397 0.095574252 0.0042022052
0.0035685974 0.095963985 0.0044976058
0.0058200029 0.095373973 0.0044251955
0.0061020348 0.095490374 0.0045130802
0.0074808816 0.095568098 0.004692419
0.0084861014 0.095803812 0.0049143825
-0.0060977819 0.096033677 0.0047893575
-0.0031206016 0.096116513 0.0045298655
-0.00075832271 0.096028879 0.0042458447
0.00036072469 0.096455723 0.0044230144
0.002394133 0.096625283 0.0047154841
0.0034492316 0.09640912 0.0047122911
0.0047355597 0.096362755 0.0048190365
0.0062593208 0.096257396 0.004919786
-0.0020225809 0.097022913 0.0048803748
-0.0018100587 0.097168326 0.0049329251
-8.6594955e-05 0.097423196 0.0048881262
-0.0023279982 -0.09909223 0.0059655979
-0.0013719965 -0.099039592 0.0058418885
0.00080089859 -0.09927541 0.0059041367
-0.0043390226 -0.098223075 0.0057266057
-0.0026113277 -0.098458312 0.0056713526
-0.0018506293 -0.098712578 0.005723801
0.00044631938 -0.098735861 0.0055933259
0.0017903133 -0.098572448 0.0056462646
0.0037699619 -0.098158509 0.0056359912
0.0070617301 -0.098190814 0.0059860512
-0.012885199 -0.097027205 0.0059834942
-0.011146175 -0.09715306 0.0058713714
-0.0096973684 -0.097291686 0.005795158
-0.0073966663 -0.097185373 0.0055078282
-0.0046943412 -0.097011089 0.0051451582
-0.0025030568 -0.097730614 0.0052896501
0.0026417167 -0.097741507 0.0053092116
0.0046186703 -0.097236723 0.0052523785
0.005754584 -0.097996756 0.0057546929
0.0063491142 -0.097424656 0.0055234777
0.0075032767 -0.097451352 0.0056540426
-0.015127751 -0.09634611 0.0058637825
-0.013547787 -0.09623 0.0056445017
-0.0089801289 -0.096348256 0.0052418257
-0.006847091 -0.096822992 0.0052675051
0.0047083651 -0.09678714 0.0050324216
0.0084895305 -0.09668766 0.0053648991
0.010499351 -0.096492685 0.0054692733
0.01142062 -0.096236333 0.0054320325
0.01267327 -0.09637095 0.005627594
-0.022283373 -0.095038541 0.0059228321
-0.020102929 -0.095017299 0.0056910282
-0.018169755 -0.095592447 0.0057881181
-0.016112102 -0.095221028 0.0053903572
-0.0144649 -0.095560394 0.0053963116
-0.012251657 -0.095313087 0.0050460109
-0.009800191 -0.095727101 0.0050084833
0.0093945889 -0.095900685 0.0050556827
0.010401031 -0.095737338 0.0050744545
0.013952645 -0.095875598 0.0055048754
0.015353662 -0.095472679 0.0054415893
0.017612824 -0.095904768 0.0058907252
0.01811189 -0.095723294 0.0058488478
0.019238412 -0.095781349 0.0059926058
0.021853607 -0.095095262 0.0059081097
-0.024490632 -0.094454721 0.0058491006
-0.023527494 -0.094493687 0.0057713403
-0.02143728 -0.094150335 0.0053845742
-0.020301871 -0.094542027 0.0054690554
-0.019690566 -0.094848946 0.005563471
-0.018714273 -0.09407077 0.0050680689
-0.017691327 -0.094962545 0.0054187244
0.016179003 -0.094735712 0.0051497514
0.017358307 -0.094958499 0.005382794
0.01838534 -0.094546206 0.0052768225
0.022536147 -0.094611108 0.0057306061
-0.029188201 -0.093507566 0.0058426526
-0.028781626 -0.093324706 0.0057082847
-0.027384285 -0.093625881 0.0057201032
-0.026766013 -0.093108565 0.005393893
-0.022389086 -0.093643524 0.0052228426
-0.021965854 -0.09355738 0.0051360591
-0.020782964 -0.093660511 0.0050687175
0.01932206 -0.093839787 0.0050118398
0.020551633 -0.093868919 0.0051513109
0.023766881 -0.093610063 0.0053453096
0.024813922 -0.09351819 0.0054046251
0.026639936 -0.093678653 0.005671462
0.028339077 -0.093671247 0.0058399094
-0.036169104 -0.092234917 0.0059017465
-0.034325879 -0.092021227 0.0056060608
-0.033934407 -0.092032462 0.0055721141
-0.032452624 -0.092389509 0.0056038667
-0.031460963 -0.092454493 0.0055364724
-0.029913094 -0.092016004 0.0051561887
-0.02885679 -0.092563026 0.0053278529
-0.026223999 -0.092708983 0.0051353872
0.024189241 -0.092910692 0.0050317878
0.026486639 -0.092996754 0.0053084921
0.028394222 -0.092451006 0.0052237744
0.029861113 -0.092434235 0.0053639105
0.030343592 -0.092565611 0.0054797493
0.0325948 -0.092667714 0.0057599489
0.035271332 -0.092273265 0.0058302628
0.036976568 -0.09212891 0.0059295516
-0.037733153 -0.091434762 0.0056525632
-0.035494708 -0.091640554 0.0055305641
-0.034420513 -0.091698721 0.0054513337
-0.032423936 -0.091474853 0.0051349257
0.031947494 -0.091974668 0.0053412295
0.032381896 -0.091906428 0.005350491
0.03466022 -0.091495462 0.0053720227
0.038268752 -0.091775723 0.0059281602
-0.040277202 -0.090045735 0.0057605687
-0.038301792 -0.090153374 0.0052369204
-0.037082508 -0.090697482 0.0052109677
-0.036341034 -0.090946861 0.0052628838
0.03677164 -0.090427697 0.0050419965
0.037276238 -0.090555914 0.0051667667
0.038422301 -0.090432473 0.0053922595
0.039396852 -0.090827629 0.0058442163
-0.041827191 -0.089350164 0.0059074759
-0.039549101 -0.089693531 0.0053982893
-0.038382225 -0.08976309 0.005091554
0.038308304 -0.089803435 0.0050876443
0.04036478 -0.089675613 0.005625959
-0.042150978 -0.08842025 0.0055992464
-0.041833676 -0.088158928 0.0053947885
0.040377624 -0.088403217 0.0050800568
-0.044771284 -0.087571181 0.0059887627
-0.043638725 -0.087280646 0.005536383
-0.042821463 -0.087683111 0.0054743523
0.041474998 -0.087671384 0.0050806561
0.043147102 -0.087775752 0.0056083328
-0.045484439 -0.086351119 0.0056675831
-0.044497702 -0.08676964 0.0055635772
0.044965066 -0.086436048 0.0055543385
0.045884557 -0.086280577 0.0057525728
-0.047494888 -0.085581854 0.0059155533
-0.046057507 -0.085609011 0.0055124299
-0.045398701 -0.08537811 0.0052225473
0.045317914 -0.085850067 0.0054030623
0.046754654 -0.085166439 0.0055224448
0.047159739 -0.08578857 0.0059080985
0.045918096 -0.084869005 0.0051525114
0.04932351 -0.084068835 0.0057897544
-0.050791614 -0.083491303 0.0059640338
-0.049738586 -0.083859675 0.0058192294
-0.04857647 -0.083094642 0.0051533664
0.047627028 -0.083583623 0.0050905165
0.049607236 -0.083529778 0.0056387973
-0.050394993 -0.082701966 0.0055086059
0.00089583604 -0.08217974 0.0056342911
0.001704568 -0.082354352 0.0059503298
0.048787273 -0.082865112 0.0051150238
0.049518242 -0.082405061 0.0051272768
0.050712779 -0.082543731 0.0055319523
-0.054223634 -0.081098095 0.0059208353
-0.052465033 -0.081514411 0.0055930936
-0.05087259 -0.081369482 0.005070887
-0.0086404728 -0.08100564 0.0059793051
-0.0073901997 -0.081178032 0.0059074429
-0.0050726873 -0.081470385 0.005748631
-0.0048289536 -0.081404656 0.0056410483
-0.0026051144 -0.081382759 0.0052037574
-0.0015413064 -0.081684917 0.0052890731
0.002109203 -0.081540465 0.0052594505
0.0031107615 -0.081090182 0.0050229491
0.0065972507 -0.081280231 0.0058552828
0.051434774 -0.081820682 0.0054280069
0.052934039 -0.081213348 0.00559839
-0.055570416 -0.080168009 0.0059077856
-0.054452203 -0.080266058 0.0056274035
-0.05217227 -0.080840215 0.0052173827
-0.010758653 -0.080407411 0.005812631
-0.009525218 -0.080201797 0.0053878292
-0.0083020218 -0.080675095 0.0056045013
-0.0079295663 -0.080741651 0.0055974247
-0.0068145553 -0.080782004 0.0054265177
0.0049660574 -0.080922619 0.0052127433
0.0058276956 -0.080677606 0.0051433705
0.0071030138 -0.080350548 0.0050742272
0.0094318287 -0.080663346 0.0058052563
0.052351039 -0.080813825 0.0052575432
0.053260047 -0.080386326 0.005335243
0.054317627 -0.080438495 0.0056630205
0.055465497 -0.080123603 0.0058583063
-0.056538876 -0.079611689 0.0059470031
-0.054846577 -0.079348572 0.0053449203
-0.053824097 -0.079738647 0.0052183047
-0.017682744 -0.07908465 0.0058638761
-0.015793489 -0.079560027 0.0059577199
-0.014502282 -0.079685055 0.0058335676
-0.013877329 -0.079331592 0.0053835013
-0.012884676 -0.079758808 0.0055999625
-0.011513797 -0.079573944 0.0051689609
0.008940055 -0.079917416 0.0050103962
0.011242691 -0.079824336 0.0053541614
0.012489767 -0.079398602 0.0051867627
0.014860483 -0.07958477 0.0058063418
0.015596955 -0.079211213 0.0055924244
0.017242234 -0.079117954 0.0058128457
0.053556651 -0.079676896 0.0051143998
0.054786511 -0.079615124 0.005442691
0.056315951 -0.079148531 0.0056825783
0.057104699 -0.079242736 0.0059509231
-0.05713575 -0.078181781 0.0055016223
-0.05641938 -0.078724228 0.0055291741
-0.055856254 -0.078514919 0.005276233
-0.023463659 -0.078031138 0.0059545753
-0.021968704 -0.078106895 0.0057458398
-0.019684177 -0.078460336 0.0056507606
-0.018991763 -0.078387253 0.0054521756
-0.01774117 -0.078512914 0.0053362329
0.014528915 -0.078827798 0.0050311065
0.015403057 -0.078853361 0.0052189697
0.016765947 -0.078588851 0.005225156
0.019971512 -0.078074157 0.0053409189
0.020214496 -0.078584045 0.0058667916
0.055589084 -0.078214079 0.0050691385
0.056892809 -0.078482062 0.0055611855
0.05750614 -0.078454465 0.0057262867
-0.060130026 -0.077105157 0.0059007746
-0.058469504 -0.077644497 0.0056544887
-0.05738328 -0.07738892 0.005230587
-0.028461879 -0.077060692 0.0059769345
-0.026210655 -0.077293962 0.0057748249
-0.025258157 -0.07752499 0.005814001
-0.023046607 -0.077973902 0.0058225216
-0.022500664 -0.077687941 0.0054508466
-0.021521751 -0.077778667 0.0053528962
0.020479994 -0.077991344 0.005358181
0.021626044 -0.077760935 0.0053558503
0.022439595 -0.077882998 0.0056232745
0.023605401 -0.077777341 0.0057421806
0.025427805 -0.077441752 0.0057675005
0.026770523 -0.077217489 0.0058078114
0.056783509 -0.077646315 0.0051686279
0.058966216 -0.077293836 0.0056463522
0.059761129 -0.077172041 0.0058231754
-0.059965838 -0.076744057 0.0056974133
-0.058102541 -0.076739535 0.0051576765
-0.028811367 -0.076307595 0.0053329677
-0.02578982 -0.076888777 0.0053142812
0.024912391 -0.076939285 0.0051975814
0.02505723 -0.076857358 0.0051475372
0.028881833 -0.076963581 0.0059642242
0.029670697 -0.076400831 0.0055818912
0.030832194 -0.076336779 0.0057391762
-0.062006555 -0.07590279 0.005923016
-0.061564658 -0.075411923 0.0055834414
-0.060767446 -0.075013891 0.0051814225
-0.032171085 -0.075597994 0.0055909008
-0.031102609 -0.075949751 0.0054252292
-0.03055427 -0.07590428 0.0052796365
0.031156693 -0.075908668 0.0053966665
0.032432172 -0.075581603 0.0057171197
0.059303857 -0.075631268 0.005025642
0.06061526 -0.075437419 0.0053204088
-0.063527584 -0.074292377 0.0056663966
-0.061732292 -0.074619502 0.0052895392
-0.034503594 -0.074375242 0.0058591068
0.033495575 -0.074639618 0.005532274
0.060604263 -0.074855328 0.005065796
0.061556377 -0.074591145 0.0052264831
0.063600056 -0.074516207 0.0057839728
-0.066309705 -0.073183447 0.0059903599
-0.065512344 -0.073635086 0.0059553175
-0.06448397 -0.073537402 0.0056163119
-0.063703611 -0.073549733 0.0053964062
-0.062642068 -0.073895305 0.0052393004
-0.036202606 -0.073299885 0.0059069544
-0.035116799 -0.073654406 0.0056106546
0.035069115 -0.07379932 0.0057008518
0.036180235 -0.073271103 0.0058719246
0.063917093 -0.073841207 0.0055839065
0.0642768 -0.073963717 0.0057406449
-0.067979783 -0.072051018 0.0059832181
-0.066232637 -0.072751015 0.005781325
-0.065918997 -0.072273247 0.0054844227
-0.063267633 -0.072991431 0.0050294064
-0.036647566 -0.07279025 0.0057373978
0.035578001 -0.072658807 0.0050615701
0.036923047 -0.072442897 0.0056068995
0.06574136 -0.072999135 0.005746692
0.066363424 -0.072333843 0.0056388597
-0.038829699 -0.071651466 0.0059924121
0.037218411 -0.071993016 0.0054052304
0.065771639 -0.071840078 0.0052547632
0.066511035 -0.071488857 0.0053164605
0.068523616 -0.071186692 0.0057668174
-0.070476197 -0.070192963 0.0059417309
-0.067419767 -0.070627898 0.0052068508
-0.039541513 -0.070492901 0.0054470012
0.039338365 -0.070380986 0.0052491203
0.040390007 -0.070380941 0.0058102724
0.067966379 -0.070469357 0.0052961227
0.069008797 -0.07099852 0.0058255736
-0.070382036 -0.069117859 0.0055907508
-0.069905996 -0.069610998 0.005527453
-0.041250549 -0.069696844 0.0057232557
-0.040895067 -0.069894522 0.0056914371
-0.039999746 -0.069922797 0.0052362275
0.039903693 -0.069970712 0.0052231457
0.040632159 -0.06942457 0.0051757265
0.041493114 -0.069146544 0.0054131215
0.068206981 -0.069630183 0.0050030742
0.070352949 -0.069447309 0.0056732781
-0.071354523 -0.068057872 0.00570489
-0.070637263 -0.068471372 0.0055144094
-0.042614698 -0.068402208 0.0054172971
0.042154413 -0.068433307 0.0051964116
0.04336831 -0.068568006 0.0059517538
0.069671541 -0.068697378 0.005162484
0.071559437 -0.068518512 0.0059263641
-0.069908328 -0.067969523 0.005054689
-0.044358112 -0.067597121 0.0057046879
-0.043496609 -0.067574501 0.0052268826
0.042778544 -0.067795232 0.0050198906
0.044646151 -0.067694664 0.0059361933
0.071670026 -0.06719777 0.0055929394
-0.072472647 -0.066133946 0.0056325812
-0.071057089 -0.066603817 0.0051567303
0.044433616 -0.066775464 0.0050886925
0.070727974 -0.066820681 0.0050771693
0.071228713 -0.066431522 0.005181151
-0.073118582 -0.065503657 0.0057296827
-0.071589857 -0.065683179 0.0051211435
-0.048049726 -0.065349139 0.0058793887
-0.047891259 -0.065307312 0.005761418
0.046741199 -0.065824233 0.0055604256
0.073219113 -0.065047838 0.0056415652
-0.048067611 -0.064392611 0.0051250141
0.048495054 -0.064793438 0.0056731272
0.049351826 -0.064212576 0.0056664501
0.07260479 -0.064612478 0.0052505485
0.073383898 -0.064883158 0.0056652194
-0.074330315 -0.063487798 0.0056712772
-0.050592378 -0.063505203 0.0057636327
-0.049632795 -0.063232884 0.0050340751
0.050043993 -0.063033499 0.0050941859
0.073634714 -0.063702323 0.0054327464
-0.075617127 -0.062088091 0.0058231372
-0.051363606 -0.062398687 0.0052914955
0.051520448 -0.062994771 0.0058511412
0.073602788 -0.062425002 0.0050502867
0.074049786 -0.062061742 0.005138529
0.075896628 -0.062043622 0.0059310496
-0.07463178 -0.061497785 0.0052271271
-0.054214906 -0.061231554 0.0058809593
-0.052584223 -0.061432488 0.0051712343
0.053298224 -0.061671086 0.0057427054
0.074752919 -0.06183463 0.005376704
-0.076149732 -0.060348086 0.0055509871
-0.075086437 -0.060768381 0.0052129966
0.075549759 -0.060184307 0.0052445852
0.076307639 -0.060457118 0.0056506926
-0.077494003 -0.059842758 0.0059858086
-0.075804889 -0.05995439 0.0052884007
-0.056339972 -0.059655122 0.0057559554
-0.055306822 -0.059686393 0.0052296179
0.055703089 -0.05978974 0.0055235475
0.056663744 -0.059373181 0.0057035154
0.077406764 -0.059957862 0.0059813662
-0.07777819 -0.058337882 0.0056742234
-0.076172724 -0.058931902 0.0051521719
-0.057635687 -0.058247842 0.0053234752
-0.056644313 -0.058795974 0.0052322182
0.057451781 -0.058836088 0.005695106
0.076312624 -0.058805194 0.0051760697
0.077845693 -0.058881868 0.0058604088
-0.078328416 -0.057538424 0.0056811529
-0.077792071 -0.057969138 0.0055737905
-0.058029547 -0.057448287 0.0050491318
0.05785922 -0.057755403 0.0050769933
0.058558676 -0.057070214 0.0052699712
0.059226483 -0.057135038 0.0058378875
0.077694513 -0.057454616 0.0053831758
-0.079430014 -0.05671094 0.0059181689
-0.058695812 -0.056474064 0.0050613377
0.05867498 -0.056647796 0.0051374412
0.059267156 -0.05672935 0.005653888
0.077525556 -0.056730714 0.0051012617
0.07927902 -0.05636099 0.005751967
-0.078663521 -0.055573523 0.005258787
-0.06001018 -0.055242978 0.0054540662
-0.059542019 -0.05595931 0.0054624425
0.059421293 -0.055696666 0.0052259285
0.06036599 -0.055521287 0.0058868043
0.078048483 -0.055837885 0.0050694505
0.080478638 -0.055146679 0.0059196679
-0.081033163 -0.054127902 0.0058651385
0.060716271 -0.05489894 0.0058344514
0.078641504 -0.054949731 0.0050692703
0.0797638 -0.054687198 0.0054782806
0.080582418 -0.054400533 0.0057491404
0.081105605 -0.054336399 0.0059566251
-0.080603935 -0.053375937 0.0054626884
-0.079640627 -0.053795442 0.0051676598
-0.061447952 -0.053579412 0.0057145543
-0.060648009 -0.053738583 0.0051606498
0.060997009 -0.053839155 0.0054931343
0.06121679 -0.053329375 0.0053966157
0.079555355 -0.053841781 0.0051442347
0.081081271 -0.053227186 0.0056259711
-0.081847392 -0.052829921 0.0058422214
-0.062197935 -0.052307069 0.0056345426
0.061937805 -0.052635103 0.0056019463
0.062470846 -0.052433964 0.0059203072
0.080881409 -0.052596953 0.0053577418
0.081339039 -0.052888319 0.0056395144
-0.08229392 -0.051393967 0.0056206505
-0.081006959 -0.051615264 0.005128603
-0.080857284 -0.051720239 0.0050942488
-0.062518917 -0.051546041 0.0054847659
0.061764169 -0.051923186 0.0050833672
0.063300982 -0.051208917 0.0059295516
0.081514545 -0.051112399 0.0052027591
0.082642019 -0.051807467 0.005890382
-0.082496062 -0.050509207 0.0054526026
0.08160726 -0.050814528 0.0051568337
0.082503334 -0.050549529 0.0054674093
0.083626121 -0.050633784 0.0059767165
-0.082953073 -0.0498996 0.0054740664
-0.063868672 -0.049258526 0.0053420132
0.063808545 -0.049651135 0.0055036033
0.064219669 -0.049209144 0.0055960706
0.082833536 -0.049594507 0.0053344048
0.0831393 -0.049281321 0.0053760908
-0.08495222 -0.048241675 0.0058590993
-0.083744653 -0.0480396 0.0052791531
-0.064749226 -0.048450053 0.005613815
0.063943572 -0.048553195 0.0050255298
0.064734496 -0.048826933 0.0058032684
0.082591586 -0.048958436 0.0050463104
0.083962969 -0.048985854 0.0056465948
0.084283017 -0.048372898 0.0056079268
-0.085768931 -0.047025874 0.0058609773
-0.084423669 -0.04759302 0.0054435683
-0.065626472 -0.047319643 0.0057111634
0.065744042 -0.047261924 0.0057743606
0.08490333 -0.047452591 0.0056102523
0.085684896 -0.047209363 0.0058776531
-0.08441598 -0.046685584 0.0051783379
-0.065751076 -0.046263061 0.0052468488
0.065603741 -0.046480928 0.0052455366
0.084408954 -0.046322081 0.0050704288
0.085550882 -0.046595912 0.0056427135
-0.087415352 -0.045021567 0.0059936736
-0.086562939 -0.045392685 0.0057325764
-0.085778162 -0.045465361 0.0054145604
-0.084751993 -0.045737937 0.0050499728
-0.067466922 -0.045030601 0.0059594647
-0.066228919 -0.045604799 0.0052771945
0.067236498 -0.045302536 0.0059206695
0.0854505 -0.045133643 0.0051773172
-0.067473456 -0.044825703 0.0058553452
-0.066771433 -0.044559613 0.0051527061
0.066491745 -0.044813197 0.0050647547
0.067450963 -0.044391453 0.0056057479
0.085381068 -0.044688538 0.0050188564
0.08619348 -0.0444103 0.0052894764
-0.086690016 -0.043789949 0.0053248801
-0.068136655 -0.043474138 0.005663747
0.067808859 -0.043509975 0.0054211868
0.068041995 -0.043719143 0.0057189986
0.086598724 -0.04357595 0.0052237082
-0.088662393 -0.042045027 0.0056732441
-0.068400964 -0.04245716 0.0053321351
0.068458878 -0.042608082 0.0054590162
0.06903559 -0.042382691 0.0057993205
0.087516494 -0.042228106 0.0052311323
0.088772215 -0.042959929 0.0059847571
-0.088337108 -0.041332558 0.0053271074
-0.087977305 -0.04148417 0.0052154455
-0.069354482 -0.041689545 0.0056839981
0.069092974 -0.041601777 0.0054284241
0.087928876 -0.041797496 0.0052849725
0.088673554 -0.041383069 0.005487028
0.089620627 -0.04140348 0.0059020096
-0.09010534 -0.040845543 0.0059503382
-0.089456141 -0.040331841 0.0055216532
-0.088685177 -0.04056422 0.005255701
-0.069401324 -0.040421929 0.0050449688
0.069149107 -0.040855896 0.0050752154
0.08861798 -0.040577248 0.0052304473
-0.090608373 -0.039227515 0.0057006385
-0.089310378 -0.039525084 0.0052258479
-0.070605636 -0.039343297 0.0054311557
0.070654668 -0.039295744 0.0054450352
0.071100503 -0.039530464 0.0059263529
0.089171991 -0.039063517 0.0050328644
-0.090807348 -0.038528942 0.0055849683
0.071111865 -0.038510956 0.0053913686
0.090013482 -0.038141619 0.0051302677
0.091003604 -0.038670193 0.0057105082
-0.092027694 -0.037427761 0.0059237103
-0.091223732 -0.037501909 0.0055216001
0.071096979 -0.037835319 0.0050189337
0.090905562 -0.03774102 0.0053999838
-0.072559558 -0.036676604 0.0055685556
0.07240501 -0.03619387 0.0051876167
0.091452502 -0.036364008 0.0055228453
-0.091758654 -0.03569553 0.0056110607
-0.090609141 -0.035475664 0.0050030844
0.073492751 -0.035442322 0.0056552654
0.092379533 -0.035363432 0.0058937813
-0.09275838 -0.034258947 0.005974819
-0.091753781 -0.034192394 0.0054562227
-0.074396342 -0.034008496 0.0056116888
0.074527979 -0.034314752 0.0058803107
-0.092733867 -0.033262689 0.0058613522
-0.091595381 -0.033718359 0.0053274715
-0.075250246 -0.033201411 0.0058629666
0.075101152 -0.033525418 0.0059168409
0.09144485 -0.033613831 0.005240229
0.092570178 -0.033011429 0.0057525523
-0.093078263 -0.032539867 0.0059635653
-0.091161124 -0.032916613 0.0050249463
-0.075686902 -0.032067839 0.0056067985
0.074836329 -0.032590549 0.0052064499
0.075491741 -0.03239641 0.0056262929
0.091525652 -0.032274451 0.0051456606
0.092818737 -0.032280646 0.005805132
-0.092084497 -0.03125342 0.0053268326
-0.076180987 -0.031118682 0.0056460882
0.076268725 -0.03192734 0.0059964918
0.092499726 -0.031416904 0.0055550528
-0.093581267 -0.030184951 0.0059811547
-0.092422739 -0.030612268 0.0054341848
-0.091799051 -0.030432861 0.005098226
-0.076269969 -0.030363485 0.0055884193
0.076374754 -0.030750923 0.0057597002
0.092461497 -0.030785887 0.0054716258
-0.093171425 -0.029771488 0.005730432
-0.092592187 -0.02926141 0.0053836075
0.076180547 -0.029537503 0.0053493641
0.092675053 -0.029349612 0.0054348693
0.093291268 -0.029977694 0.005812475
-0.093103677 -0.028516993 0.0055687637
-0.092742585 -0.028344216 0.005367266
-0.076130815 -0.028065486 0.0050267326
0.076992519 -0.028886029 0.0059921914
0.092456773 -0.028144216 0.005201499
0.093517266 -0.028330157 0.0057606339
-0.093399867 -0.027444582 0.0056109792
-0.077091247 -0.027296901 0.0057875193
-0.076289766 -0.027654124 0.0050994088
0.077202782 -0.027043138 0.0058449274
0.093697332 -0.027632097 0.0057816193
-0.094390497 -0.026003601 0.0059696562
-0.093099371 -0.026945818 0.0054073147
-0.077204637 -0.026253339 0.0056988075
-0.076978438 -0.026469674 0.0055262465
0.07672058 -0.026340544 0.005259024
0.077263393 -0.026230009 0.0057496578
0.092454031 -0.02675879 0.0050596967
0.094045565 -0.026351471 0.0058292467
0.077114545 -0.025074167 0.0053928737
-0.094245479 -0.024003193 0.0056930101
-0.093469866 -0.024027798 0.0053003225
0.077579588 -0.024196504 0.0056665093
0.092779659 -0.024982231 0.0050455434
0.093207836 -0.024081325 0.0051723826
0.094249815 -0.024817931 0.0057778838
-0.077939913 -0.023559693 0.0058867652
0.077203453 -0.023340173 0.0051517407
0.093340904 -0.023132905 0.0051440531
0.094196208 -0.023131574 0.0055796583
-0.094462015 -0.022434495 0.0056443429
-0.09382423 -0.022791386 0.0053555528
-0.078291647 -0.022152198 0.0059543932
0.077534102 -0.022766527 0.0053557344
-0.094525218 -0.021744272 0.005606587
-0.093556561 -0.021329321 0.0050709867
0.094468147 -0.021062616 0.0055085151
-0.095120788 -0.020556381 0.0057896287
-0.078292668 -0.020158546 0.0055818134
-0.077959523 -0.02018665 0.0052732294
0.07829313 -0.020327725 0.0056138188
0.093612276 -0.020704783 0.0050362181
0.094020166 -0.020846315 0.0052583702
-0.094408274 -0.019731116 0.005342952
-0.07862471 -0.01926876 0.0057278997
0.077975407 -0.019122818 0.0050887619
0.078245118 -0.019783288 0.0054665818
0.094708964 -0.019284625 0.0054510105
0.095527813 -0.019016255 0.0058409856
-0.095284984 -0.018415136 0.0056562554
0.094978422 -0.018347135 0.0054932726
-0.096073948 -0.017149707 0.0059299818
-0.095386095 -0.017208755 0.0055854963
-0.078584857 -0.017429249 0.0053456789
0.078699484 -0.017524295 0.0054713511
0.095037699 -0.017326137 0.0054200022
-0.096238539 -0.016356815 0.005933478
-0.095624313 -0.016866378 0.0056721726
-0.094458759 -0.016363744 0.0050273635
0.078568168 -0.016085554 0.0050780806
0.094572574 -0.016223757 0.0050713089
0.095272504 -0.016493989 0.0054552872
-0.095836565 -0.015365158 0.0056281579
-0.094975263 -0.01528395 0.0051810821
-0.078778028 -0.015665494 0.0051971786
0.094725043 -0.015664157 0.0050922753
0.095677532 -0.015968543 0.0056083822
0.09632054 -0.015439462 0.0058823442
-0.096122772 -0.014755022 0.0057121394
-0.095190868 -0.014430003 0.0052043833
-0.079115592 -0.01417602 0.0052361097
0.079564899 -0.014324214 0.0056870123
0.094832197 -0.014659851 0.0050450829
0.095064215 -0.014150951 0.0051117088
0.096177056 -0.014476253 0.00571163
-0.096542992 -0.013330799 0.0057818899
-0.09550792 -0.013882516 0.0053104316
-0.094970733 -0.013687015 0.0050169113
-0.079683788 -0.013220947 0.0055924272
0.079562068 -0.013707172 0.0055687409
0.095439367 -0.0139323 0.0052806754
0.0965342 -0.01317057 0.0057612495
-0.096741408 -0.012480749 0.0057968218
-0.095445909 -0.012002216 0.0050882539
-0.0800495 -0.012237717 0.0057527185
-0.079334751 -0.012385519 0.0051070731
0.096965119 -0.012457722 0.0059085409
-0.097225808 -0.011242583 0.0059181359
-0.080158107 -0.011322629 0.0056835697
-0.079549909 -0.011702077 0.0051817144
0.095694765 -0.011338176 0.0051478804
0.096091263 -0.011315851 0.0053476193
-0.097097114 -0.010778999 0.0058055753
-0.096711606 -0.010656759 0.0055967714
-0.079842493 -0.010898225 0.0053067245
0.080647089 -0.010165769 0.0059273257
0.095632166 -0.010623294 0.005043535
0.096731097 -0.010042582 0.0055445489
0.097506791 -0.010536012 0.0059897392
-0.097621866 -0.0098958015 0.0059834262
-0.096270084 -0.0098262103 0.0052876282
-0.095884264 -0.0093242908 0.0050401911
-0.080544218 -0.0095318593 0.0057117734
0.080111578 -0.0090388004 0.0052117109
0.095935136 -0.0094209462 0.0050760303
0.096443638 -0.0095401593 0.0053471783
0.097660534 -0.0094660586 0.0059596268
-0.096029237 -0.008799077 0.0050608292
-0.080542594 -0.0087047089 0.0055552619
0.08066345 -0.0080512967 0.0055465591
0.096692674 -0.0085399775 0.0053726877
0.097448796 -0.0082686702 0.0057303999
-0.09767212 -0.0075213513 0.0057683634
-0.0964747 -0.0075108474 0.0051572346
0.080938898 -0.0076099811 0.0057233511
0.097267985 -0.007810588 0.0055918614
-0.097527131 -0.006248679 0.0055655055
0.097611777 -0.006574498 0.0056417393
0.098226815 -0.0069282218 0.005990922
-0.098290578 -0.0057373927 0.005902655
-0.097414516 -0.0054957401 0.0054318318
-0.080681778 -0.005573546 0.0050996896
0.080573589 -0.0057065412 0.0050225835
0.081463307 -0.0058613122 0.0058897226
0.09683241 -0.0058563724 0.0051718978
0.097645536 -0.0057286308 0.0055732108
-0.098152749 -0.0046888394 0.005726167
-0.097340181 -0.0048205853 0.0053255437
0.081634365 -0.0044776755 0.0057916157
0.098225832 -0.0046561896 0.0057601561
-0.098105222 -0.0034403743 0.0055754413
-0.097331017 -0.0033556053 0.0051724287
-0.081828609 -0.0030802679 0.0057128528
0.080977336 -0.0039561037 0.005074956
0.097206928 -0.0039520906 0.0051697041
0.098249495 -0.0037441042 0.0056797732
-0.098069742 -0.0028904909 0.005501647
-0.097503096 -0.0024668034 0.0051700268
-0.081408575 -0.0021403895 0.0051410529
0.081977651 -0.0026766546 0.0057775625
0.082019553 -0.0025401711 0.0057914597
0.097375304 -0.0027900699 0.0051377178
-0.099192165 -0.0016522419 0.0059480006
-0.098659053 -0.00193705 0.0057052644
-0.081433818 -0.0018740015 0.0051149065
0.082211025 -0.0013514077 0.0057490948
0.097815968 -0.0013731897 0.0052186223
0.098425969 -0.0015972011 0.0055520968
0.099175833 -0.0010906394 0.0058827829
-0.098186433 -0.00036185354 0.0053048553
-0.082395762 -0.00088714308 0.0058361557
-0.081970856 -0.00074020092 0.005408355
0.098014414 -0.00066288485 0.005247735
-0.098912433 0.00020647843 0.005658986
-0.081694238 5.4773125e-05 0.0050193169
0.098668516 0.00041181914 0.0055555254
0.099311888 2.7711279e-05 0.0058443719
-0.098594889 0.0017568795 0.0056543397
-0.082237154 0.0014690332 0.0057957466
0.081686139 0.0010829234 0.0052043679
0.097742051 0.0010294712 0.0051461128
-0.098748133 0.0028955364 0.0058478094
-0.097721867 0.0024000728 0.0052747512
0.082017206 0.0023293654 0.0057498096
0.097632714 0.0028093909 0.005270781
0.098700076 0.0021647736 0.0057492363
-0.09873721 0.0035709329 0.0059106955
0.081549451 0.0031766309 0.0054679331
0.082045935 0.0032661685 0.0059524244
0.097921714 0.0039041364 0.0055289483
0.098273546 0.0033866148 0.0056557469
-0.098534115 0.0048002107 0.0059318137
-0.097920626 0.004005508 0.0055387206
-0.080802016 0.0048060324 0.0050690495
0.081280328 0.0044209724 0.0054475954
0.097509407 0.0046538315 0.0053948616
0.098498411 0.0044712336 0.0058802189
-0.098090813 0.00583843 0.0058111865
-0.097504482 0.0052471785 0.00545255
0.080708481 0.0057716891 0.0051619713
0.081433184 0.0051748282 0.005732845
0.097872652 0.0055411179 0.0056698355
-0.097436406 0.0066179475 0.005556793
0.080433145 0.0065551852 0.0050493935
0.097417831 0.0067091323 0.0055564828
-0.097802997 0.0072442247 0.0058070314
-0.096758187 0.0076717916 0.0053180759
0.08083722 0.0079067983 0.0056833085
-0.097137153 0.0081523992 0.0055598505
-0.096861869 0.0084024537 0.0054449486
0.097177058 0.0082048904 0.0055854027
-0.096801959 0.0091262199 0.0054877792
0.09716478 0.0097032562 0.0057310201
-0.096771657 0.010209298 0.00558211
-0.080129743 0.010470777 0.0054971213
-0.079897963 0.010700591 0.0053218249
0.080622643 0.010426734 0.0059533333
-0.09712141 0.011989915 0.0059407563
-0.096677728 0.011418701 0.0056568203
-0.079432733 0.011608191 0.0050536203
0.07961905 0.011489378 0.0052069873
0.080159545 0.011342008 0.0056885681
0.097309291 0.011161108 0.0059524155
-0.095392421 0.012279596 0.0050892606
-0.080155119 0.012998434 0.0059946221
-0.079421334 0.012740284 0.0052549997
0.080103524 0.012410427 0.0058359811
0.095412403 0.012331903 0.0051045939
-0.096423782 0.013719343 0.0057606138
-0.079806186 0.013093113 0.0056836531
0.079166993 0.013677006 0.005191029
-0.095336691 0.014692042 0.0053053666
-0.094877951 0.014868892 0.005089575
-0.079411663 0.01462841 0.005599658
0.079524226 0.014556129 0.0056922813
0.094759539 0.014724956 0.0050145094
0.095608078 0.014682408 0.0054425336
0.096458219 0.014917105 0.005899481
-0.095498458 0.01585445 0.0055055884
-0.094807342 0.015861446 0.0051541971
-0.079189852 0.015412007 0.0055375299
0.078723796 0.015324934 0.0050822822
0.0950865 0.015375907 0.0052470821
-0.094813608 0.01679562 0.0052520707
-0.079105258 0.016334979 0.0056307698
0.078950062 0.016133025 0.0054468485
0.079460628 0.01627906 0.0059551932
0.094851784 0.01669113 0.0052608005
0.095820226 0.016321938 0.0057168072
-0.094471812 0.017704438 0.0051700417
-0.078730233 0.017367447 0.005470939
0.078602016 0.01770574 0.0054136496
0.095924795 0.017537896 0.0058933338
-0.095451213 0.018524151 0.0057520834
-0.078545317 0.018373653 0.0054852716
0.094186455 0.018898185 0.0051455083
0.09543287 0.018489275 0.0057391236
-0.095416121 0.01945241 0.0058282847
-0.078424662 0.019741323 0.0056278547
0.078807905 0.019225542 0.0058923708
0.094437212 0.019657064 0.0053501911
-0.09505479 0.020534618 0.0057538822
-0.094208427 0.020566965 0.0053259674
-0.093882039 0.020580726 0.0051610777
-0.078026958 0.020147385 0.0053292844
0.078395575 0.020166522 0.0056802519
0.094674058 0.020535346 0.0055598863
0.095396563 0.020478584 0.0059222546
-0.077810004 0.021720398 0.0054196361
0.077729203 0.021698495 0.0053395391
0.07839603 0.02116541 0.0058678361
0.094378367 0.021311732 0.0054879193
0.095254943 0.021237534 0.0059270249
-0.094270892 0.022076383 0.0055107679
0.077380084 0.022343129 0.0051314281
0.094581306 0.022859424 0.0057481918
0.07720767 0.023416329 0.0051700915
0.093754821 0.023598695 0.0054020179
0.094562873 0.023433367 0.0057969699
-0.077602893 0.024512665 0.0057477015
0.094610654 0.024764333 0.0059562214
-0.093492784 0.025517337 0.0054630856
-0.07681787 0.025351748 0.0051654074
0.09258914 0.025634898 0.0050144787
0.093084499 0.025319034 0.0052348506
0.09459579 0.025155485 0.0059883003
-0.094062328 0.026248697 0.0058273706
-0.077058569 0.026713591 0.0056473147
-0.076814681 0.026858222 0.0054446636
0.077081069 0.026622806 0.0056516207
0.092554986 0.026506163 0.0050853859
0.093342587 0.026744269 0.0055108061
0.094333455 0.026578635 0.0059988764
-0.094099782 0.027520945 0.0059753926
-0.093512177 0.027192511 0.0056427433
-0.0765104 0.027518651 0.0052817785
0.076822512 0.027682161 0.0056065386
0.093482882 0.027718404 0.0056810291
-0.093889497 0.028311564 0.005948388
-0.0761417 0.028773827 0.0051696538
0.076534495 0.028484408 0.0054855361
0.093757883 0.028581407 0.0059086136
-0.092863336 0.029763086 0.0055727027
-0.091927737 0.029981667 0.005118167
-0.07603015 0.02958248 0.0052161044
0.076316141 0.029244512 0.0054222443
0.092796922 0.029168203 0.0054784678
0.093292236 0.029647937 0.0057794638
-0.093398869 0.03052849 0.0059231091
-0.092692912 0.030811219 0.0055921027
-0.075888984 0.03019134 0.0051972205
0.076298833 0.030536363 0.0056479974
0.09342882 0.030407509 0.0059260433
-0.09336514 0.031091524 0.0059629907
-0.092072502 0.031388558 0.0053345077
-0.09188465 0.031396765 0.0052396241
-0.076164059 0.031686984 0.0057846447
0.075296059 0.031957567 0.0052358038
0.091597356 0.031432174 0.0050967513
0.092029601 0.031483606 0.0053221956
0.093340941 0.031074703 0.0059488961
-0.092201978 0.03248908 0.0055120131
-0.074950606 0.032096364 0.0050339969
0.07450483 0.032860756 0.0050858608
0.075165004 0.032347307 0.0053391163
0.091938622 0.032570001 0.0053859609
0.092517495 0.032875761 0.0057118908
-0.092246935 0.033459172 0.0056332331
-0.091358244 0.033744819 0.0052093761
0.07413701 0.033464175 0.0051141046
0.091284811 0.033336021 0.0051304749
-0.092608616 0.034656007 0.005938807
-0.091068394 0.034898195 0.0051785838
-0.073975958 0.034209255 0.0053831507
0.073512569 0.034598023 0.0052204602
0.091049388 0.034948789 0.0051739961
-0.090703711 0.035277531 0.0050312122
-0.073099367 0.035328668 0.0052804449
-0.072805502 0.035982769 0.0053948164
0.073240608 0.035676893 0.0055789696
0.09090627 0.035774205 0.0051847347
0.091126695 0.035088629 0.0052275546
0.092429519 0.035006396 0.0058830222
-0.092196733 0.03672995 0.0059391302
-0.091701917 0.036482539 0.0056619383
-0.072568223 0.036937643 0.0057148742
0.072561845 0.036290504 0.0053643449
0.090914585 0.036636077 0.0052763289
0.091576621 0.036831114 0.0056334105
-0.09148939 0.037299503 0.0056364476
-0.090798266 0.037539054 0.0053085852
0.090383276 0.037516642 0.0051347055
0.09155032 0.037638579 0.0057018553
0.092139974 0.037509371 0.0059891972
-0.090313181 0.038957816 0.0054952949
-0.071664423 0.038730577 0.0059498646
-0.070533969 0.038941462 0.0051595825
0.071423821 0.03845844 0.0056123794
0.089415073 0.0386259 0.0050115548
0.091658279 0.038254067 0.0058731912
-0.090463012 0.039671678 0.0057660476
-0.089781031 0.039254211 0.0053509753
-0.071155608 0.039015643 0.0056956233
0.070537299 0.039573766 0.0054995716
0.089463413 0.0392204 0.0052040163
0.090021558 0.039528862 0.0055341329
-0.070363581 0.040186871 0.0056881136
0.08927317 0.040120032 0.0053814831
-0.089101553 0.041151386 0.0056050364
-0.088367388 0.041367866 0.0053503904
-0.087805599 0.04124622 0.0050726202
-0.069476321 0.041423541 0.0056394576
0.069243029 0.041434858 0.0054590888
0.0894484 0.041708689 0.0059156888
-0.089251399 0.042265762 0.0059913904
-0.068954304 0.042483076 0.0057879784
0.068260342 0.042669039 0.0053328974
0.069366321 0.04211789 0.0059220335
0.087534428 0.042801023 0.0054042088
0.08848387 0.042862512 0.0058320728
-0.088214055 0.043321129 0.0058479053
-0.087989412 0.043231882 0.0057251155
-0.086640619 0.043653209 0.0052641015
-0.087135486 0.044956453 0.0058540064
-0.086337566 0.044294335 0.0053182459
-0.067636304 0.044002555 0.0055462397
0.067378163 0.044498958 0.0056048837
0.086769082 0.044343729 0.0055188653
-0.086622834 0.045055375 0.0056611164
-0.085436203 0.045328692 0.0052274354
-0.084852815 0.045982823 0.005164234
-0.066936038 0.04503186 0.0055362694
0.06657628 0.045718186 0.0056151072
0.086382359 0.045611378 0.0057176892
-0.085038438 0.046052303 0.0052644666
-0.066170201 0.046560727 0.0057405182
-0.085287325 0.047707811 0.0058497847
-0.084556229 0.047708046 0.0055340566
-0.083724588 0.047959633 0.0052474388
0.065070212 0.047690846 0.0054650148
0.083447509 0.047795847 0.0050804447
0.084718451 0.047709603 0.0056045493
0.085785277 0.047095343 0.0058880886
-0.08439973 0.048551138 0.0057097897
-0.082974419 0.048957117 0.0052112932
-0.064253636 0.048625316 0.0053116488
-0.063779294 0.048775204 0.0050128023
0.064450517 0.048783019 0.0055529317
0.083731577 0.048725151 0.0054713734
0.084918454 0.048115779 0.0058081779
-0.083585702 0.04912214 0.0055229682
-0.063296258 0.049645599 0.0050915186
0.063189089 0.049787808 0.0050817323
0.083714962 0.049129996 0.0055810409
-0.083358988 0.050402723 0.0057946397
-0.082770653 0.05070274 0.0056270952
-0.081629142 0.050840124 0.0051736776
-0.063470565 0.050772294 0.0058319811
-0.062670507 0.050836302 0.0052271867
0.063428074 0.050585628 0.0056983214
0.08199583 0.050014008 0.0050935932
0.082070678 0.05024055 0.0051913117
-0.082188837 0.051336993 0.0055588405
-0.063448332 0.051097199 0.0059876079
-0.062356297 0.051728014 0.0054521058
0.061835758 0.051897861 0.0051269373
0.063331515 0.051274855 0.0059890086
0.0814908 0.0517051 0.0053635361
0.082166523 0.051253714 0.0055251359
-0.082062393 0.052039869 0.005707087
-0.081955433 0.052315492 0.0057404353
-0.080522843 0.052347258 0.0051307958
0.080392659 0.052591667 0.0051450636
0.081320859 0.05266032 0.0055658277
-0.079923287 0.053866018 0.0053101615
-0.061801467 0.053411745 0.0059075113
-0.060850371 0.053706229 0.0053050905
0.06040265 0.053819604 0.0050079362
0.061308127 0.053214896 0.0054083704
0.080958024 0.053226426 0.0055724923
0.081549488 0.053489581 0.005903936
-0.080401324 0.05427409 0.0056344257
-0.079732098 0.054595541 0.0054381299
-0.06086329 0.054691173 0.0058409953
0.060786407 0.054679748 0.0057734111
0.079434872 0.054697108 0.005339026
-0.079812005 0.055570476 0.0057540298
-0.060350284 0.055011816 0.0056024007
-0.059155595 0.055816904 0.0050778957
0.059767228 0.055797677 0.0055560395
0.060421739 0.055210788 0.0057655647
0.079178274 0.055923026 0.0055820183
-0.078729466 0.056638546 0.0055946922
-0.077962324 0.056723967 0.0052879765
-0.059698351 0.056009691 0.0056142281
0.058695033 0.05657972 0.0051171035
0.059465759 0.05645068 0.0056637512
0.078809291 0.056917213 0.005709576
-0.078675389 0.057482764 0.0058149877
-0.077496797 0.057632983 0.0053492496
-0.058108218 0.057680927 0.0052361088
0.058506444 0.057680681 0.0055539939
0.076942965 0.057453211 0.0050581004
0.077570647 0.057516262 0.0053474302
-0.076347485 0.058235168 0.0050266106
-0.057165056 0.058732025 0.0054589882
-0.056976855 0.058583528 0.005239978
0.056509219 0.058999699 0.0053228256
0.057778489 0.058564451 0.0056525273
0.058418784 0.058029372 0.0056700585
0.076523282 0.05852792 0.0051870011
0.077629514 0.058630262 0.0056943893
0.078318544 0.058359854 0.0059139798
-0.077775486 0.059074163 0.0058855806
-0.076265052 0.059652701 0.0054001273
-0.056673594 0.059449013 0.0057693277
0.055299632 0.059537269 0.0051066899
0.075802259 0.059045255 0.0050248629
0.076247722 0.059693404 0.0054043606
0.077598251 0.059039265 0.0057989368
-0.077310823 0.060043316 0.005964587
-0.055685505 0.060340755 0.0059542134
-0.05469466 0.06056314 0.0056030648
-0.053586669 0.060855217 0.0052450644
0.054498672 0.060384523 0.0053559192
0.055063006 0.060182244 0.0054955138
-0.076182984 0.061221369 0.0058174226
-0.075873196 0.061793678 0.0058487942
-0.05420471 0.061190803 0.0058428715
-0.053213708 0.061496571 0.0055582304
-0.052662902 0.061921611 0.0056037437
0.053030275 0.061550081 0.0055031786
0.054076817 0.061128605 0.0057250559
0.074509591 0.061749347 0.0052469522
-0.076006301 0.062004644 0.0059671756
-0.051303729 0.062519111 0.0053556282
0.050951328 0.062651202 0.0052731498
0.051826317 0.06254895 0.005658424
0.052237682 0.062601343 0.005919788
0.074257798 0.062423188 0.0053326772
0.075420111 0.062563308 0.0058751917
-0.07321047 0.063923717 0.0053133895
-0.072740763 0.063979074 0.005126466
-0.051033735 0.063291579 0.0058284476
-0.050663512 0.063355908 0.0056822542
-0.04939663 0.063448444 0.0050801109
-0.0489631 0.063907608 0.0052154595
0.04971765 0.063945793 0.0056487061
0.051039521 0.063383952 0.0059054126
0.073797911 0.063503131 0.0054457192
0.074305184 0.063316047 0.0056108497
-0.073522717 0.06442225 0.0055921553
-0.048185039 0.064941332 0.0056258044
0.073485993 0.064702421 0.0056571313
0.074114323 0.064604752 0.0059003555
-0.073420562 0.065764867 0.0059355339
-0.072540686 0.065430328 0.00545891
-0.047348265 0.065755479 0.0058294623
-0.046854727 0.065605246 0.005446122
0.046576586 0.065651216 0.0053345035
0.073654138 0.065554678 0.0059757442
-0.072866753 0.066327967 0.005858832
-0.04667031 0.066408724 0.0059893783
0.045497783 0.066142961 0.0051515237
-0.071715951 0.067121148 0.0055906614
-0.070509776 0.067330562 0.00513008
-0.045402236 0.067084529 0.0058523985
-0.044309258 0.067599058 0.00568006
0.044725232 0.067396596 0.0057404535
0.070405014 0.067541108 0.0051455833
0.071233831 0.067583323 0.0055157873
0.072281338 0.067047007 0.0058134738
-0.071746401 0.068351343 0.0059588784
-0.070433527 0.068335205 0.0053871069
-0.069262072 0.068775214 0.0050080749
-0.044209555 0.068042904 0.0059813177
-0.043605503 0.068110928 0.0057132998
-0.041663401 0.068813227 0.0052378005
0.041701708 0.068694748 0.0051637124
0.04215315 0.068830073 0.0055126958
0.043441243 0.068317123 0.0057904217
0.070307702 0.068385497 0.0053472603
-0.069489926 0.0694931 0.0053346977
-0.042194985 0.069200888 0.0058310609
-0.040348928 0.069416612 0.0050182305
-0.039589994 0.069907539 0.0050052959
0.040991213 0.069131657 0.005133491
0.041475847 0.069726288 0.0058669969
0.069114029 0.069820203 0.0053469585
0.070283279 0.069412038 0.0056330012
-0.068576425 0.070445873 0.0054620551
-0.067276739 0.070855245 0.0052637672
-0.066903219 0.070819497 0.0051405123
-0.040626284 0.070380516 0.0059360117
-0.039466456 0.070452489 0.0053745732
0.040401265 0.070211932 0.0056814123
0.066730879 0.070790619 0.0050783115
0.069547489 0.070707299 0.0058552586
-0.068383738 0.071411476 0.0058235428
-0.067835145 0.071842618 0.005851442
-0.066986933 0.071724422 0.0055555692
-0.038177352 0.071306482 0.0053686835
-0.03769945 0.071841016 0.0055405395
0.037498225 0.071837559 0.0054304926
0.065478489 0.071632773 0.0050806194
0.066855207 0.071558237 0.0054457765
0.067419969 0.071744375 0.0056891846
0.068193272 0.071384624 0.0057569798
-0.066518784 0.072693609 0.0058391043
-0.065397032 0.072976314 0.0056374529
-0.064745098 0.07225579 0.0051380494
-0.036997057 0.072804615 0.005935262
0.037117917 0.072676934 0.0058978982
0.06447567 0.072820283 0.0053041466
0.065972798 0.072810918 0.0057322052
0.066640198 0.072914198 0.0059694452
0.06761077 0.072172917 0.0059293662
-0.064438596 0.073557183 0.0056117312
-0.063497767 0.073846012 0.0054649506
-0.035538144 0.073184356 0.0054600132
-0.034724034 0.073407732 0.0052039707
0.034977145 0.073248558 0.0052120052
0.06349127 0.073233888 0.0051986845
0.06551227 0.073235467 0.0057826731
-0.063112125 0.07444571 0.0056126919
-0.034787696 0.074359037 0.0059976932
-0.033578295 0.074191235 0.0052183117
0.033486307 0.074621201 0.0055126632
0.034108937 0.074369252 0.0056437096
0.062411651 0.074887067 0.0056011942
0.063725039 0.074430779 0.0057831691
-0.062726974 0.075151064 0.0058062137
-0.061302751 0.075694717 0.0056299828
-0.032754965 0.07536836 0.0057190647
-0.031636938 0.075784117 0.0054544951
-0.030926382 0.075611591 0.005073654
-0.029724544 0.075795844 0.0050220424
0.031423703 0.075463384 0.0050845603
0.032384366 0.075807989 0.00587242
0.059756503 0.075958371 0.0052976157
0.060857322 0.075714864 0.0055101523
0.061619457 0.075374573 0.005583128
0.062649585 0.075096585 0.0057603647
-0.060949661 0.076343767 0.0058084363
-0.059595406 0.076494649 0.0054827416
-0.058324344 0.076320611 0.005040695
-0.031646617 0.076165587 0.0057643116
-0.030831778 0.076109588 0.0055250726
-0.029664943 0.076724745 0.0058859587
-0.028305409 0.07658726 0.0055016987
-0.027537905 0.076653674 0.0054204515
-0.026100606 0.076527216 0.0050320169
-0.024007779 0.076975659 0.0050623412
0.024693834 0.07688266 0.0051031704
0.028771691 0.076785661 0.0057758992
-0.060044054 0.077280536 0.0059517026
-0.059466925 0.077135175 0.0057223365
-0.025672991 0.077357009 0.0057336083
-0.023061905 0.077488258 0.0053680101
-0.021801636 0.077771872 0.005399053
0.018994639 0.077917285 0.0050099879
0.021830048 0.077938884 0.0055615935
0.022610441 0.077568144 0.0053585623
0.023671389 0.077329226 0.0053322832
0.024187367 0.077444538 0.0055375854
0.027830061 0.077039503 0.0058385781
0.056374766 0.07792338 0.0051703709
0.057594538 0.077878967 0.0055032317
0.05870926 0.077545531 0.0056809387
-0.058873288 0.078004047 0.0059263133
-0.057231311 0.078987852 0.0058773649
-0.056744494 0.078519106 0.0055343751
-0.055585366 0.078307778 0.0051085385
-0.022279054 0.078162715 0.0058567049
